ply
format ascii 1.0
comment Created by CloudCompare v2.11.1 (Anoia)
comment Created 9/12/23 22:48
obj_info Generated by CloudCompare!
element vertex 1114
property float x
property float y
property float z
property uchar red
property uchar green
property uchar blue
property float scalar_intensity
end_header
100.115 -34.1332 7.36793 0 71 183 32.4296 
100.152 -33.6773 7.45263 0 79 175 34.5628 
100.121 -33.4516 7.42228 0 76 178 31.8812 
100.11 -33.2622 7.44278 0 77 177 32.7907 
100.066 -32.8968 7.45672 0 79 175 33.9527 
100.125 -32.5763 7.48775 0 82 172 34.0448 
100.167 -32.2441 7.43661 0 77 177 33.2907 
100.115 -31.9402 7.44528 0 78 176 32.1831 
100.117 -31.6901 7.48526 0 82 172 32.9474 
100.157 -31.3124 7.52215 0 85 169 34.2223 
100.163 -31.0626 7.48605 0 82 172 33.8543 
100.159 -30.7534 7.47463 0 80 174 33.604 
100.162 -30.5097 7.47943 0 81 173 32.6047 
100.049 -30.0894 7.52338 0 85 169 33.7447 
99.9721 -29.9774 7.47815 0 81 173 31.7 
100.033 -35.3258 7.70534 0 101 153 40.7154 
100.127 -34.8817 7.72091 0 103 151 36.312 
100.122 -34.6636 7.71848 0 103 151 34.5396 
100.118 -34.4335 7.72995 0 103 151 35.4105 
100.123 -34.0712 7.73841 0 104 150 37.6255 
100.129 -33.7891 7.64363 0 96 158 33.786 
100.122 -33.383 7.74987 0 105 149 33.5427 
100.151 -33.2896 7.80436 0 110 144 37.375 
99.8803 -32.8959 7.61137 0 93 161 37.7415 
99.9627 -32.5042 7.70639 0 101 153 36.9977 
100.136 -31.9628 7.72254 0 103 151 34.0171 
100.144 -31.7025 7.75091 0 105 149 34.5583 
100.151 -31.3822 7.75073 0 105 149 35.4313 
100.138 -31.0784 7.75861 0 106 148 37.717 
100.14 -30.756 7.76262 0 106 148 38.2078 
100.162 -30.4865 7.77218 0 107 147 35.9589 
100.043 -30.0853 7.82334 0 112 142 38.6297 
99.9895 -29.9565 7.74964 0 105 149 33.0132 
100.044 -35.441 7.87137 0 116 138 42.4394 
100.012 -35.3356 7.97512 0 125 129 47.0155 
100.129 -34.8904 7.99778 0 127 127 38.0473 
100.124 -34.665 8.01081 0 129 125 35.9232 
100.123 -34.4393 8.00885 0 128 126 37.9277 
100.097 -34.089 8.01067 0 129 125 45.6195 
100.103 -33.7531 8.00384 0 128 126 40.7436 
100.114 -33.4733 8.02851 0 130 124 37.2118 
100.091 -33.2596 7.99421 0 127 127 40.9346 
100.061 -32.826 7.95321 0 124 130 39.445 
100.087 -32.5085 7.97602 0 126 128 44.8136 
100.161 -32.4009 8.12989 0 139 115 49.0815 
100.146 -31.9943 8.04171 0 131 123 37.4632 
100.137 -31.6828 8.03011 0 130 124 37.7492 
100.16 -31.365 8.04788 0 132 122 41.7754 
100.157 -31.0577 8.03086 0 130 124 43.7355 
100.149 -30.7618 8.0355 0 131 123 43.0831 
100.165 -30.4899 8.06748 0 134 120 38.44 
100.043 -30.1008 8.11183 0 138 116 43.4871 
100.009 -29.9971 8.10236 0 137 117 35.8333 
100.03 -35.3248 8.27852 0 153 101 48.2672 
100.07 -34.8963 8.31918 0 157 97 46.7989 
100.073 -34.7114 8.2934 0 154 100 44.045 
100.059 -34.4419 8.26883 0 152 102 47.0244 
100.095 -34.07 8.23123 0 148 106 48.1261 
100.132 -33.7797 8.27895 0 153 101 42.2527 
100.118 -33.4796 8.31572 0 156 98 37.0388 
100.155 -33.2873 8.31472 0 156 98 40.3104 
100.026 -32.8932 8.37828 0 162 92 50.1409 
100.048 -32.5591 8.33474 0 158 96 46.1643 
100.153 -32.0209 8.19431 0 145 109 38.0295 
100.177 -31.6954 8.21758 0 148 106 45.4092 
100.169 -31.3544 8.22255 0 148 106 49.275 
100.135 -31.027 8.26093 0 151 103 48.5856 
100.068 -30.7243 8.33829 0 158 96 43.9798 
100.114 -30.4958 8.31704 0 157 97 42.6132 
100.041 -30.1038 8.41727 0 166 88 45.2424 
99.9776 -29.9932 8.43744 0 167 87 36.2677 
100.025 -35.7364 8.61374 0 183 71 39.0955 
100.016 -35.5725 8.63412 0 185 69 42.5713 
100.035 -35.3177 8.60183 0 182 72 51.2991 
100.011 -34.9804 8.55016 0 177 77 48.3689 
100.091 -34.7109 8.61017 0 183 71 47.719 
100.08 -34.4145 8.62432 0 183 71 47.5892 
100.069 -34.0759 8.62683 0 184 70 48.7577 
100.089 -33.755 8.64882 0 186 68 47.1818 
100.082 -33.4836 8.61689 0 183 71 48.4328 
100.05 -33.1107 8.67894 0 189 65 42.7836 
100.061 -32.8871 8.65285 0 186 68 44.0206 
100.041 -32.5751 8.66811 0 188 66 45.3926 
100.076 -32.3143 8.67541 0 189 65 44.9411 
100.083 -31.9977 8.7091 0 192 62 40.4016 
100.092 -31.6956 8.64341 0 186 68 41.6965 
100.094 -31.3888 8.67275 0 188 66 46.2374 
100.115 -31.0914 8.66645 0 188 66 49.2222 
100.083 -30.7768 8.69249 0 190 64 51.9677 
100.041 -30.4952 8.68767 0 189 65 46.2827 
100.069 -30.1365 8.70039 0 191 63 46.8689 
100.046 -30.0005 8.76189 0 196 58 38.7032 
100.076 -29.6618 8.63118 0 184 70 38.0577 
99.955 -35.796 8.84999 0 204 50 44.2578 
100.044 -35.5126 8.82136 0 201 53 42.2101 
100.064 -35.3095 8.87378 0 206 48 48.7989 
100.064 -34.9378 8.87019 0 206 48 47.1117 
100.089 -34.7071 8.93512 0 212 42 41.0436 
100.085 -34.4231 8.98182 0 216 38 42.423 
100.086 -34.0642 8.96935 0 215 39 44.7754 
100.087 -33.7442 8.96221 0 214 40 43.385 
100.09 -33.4494 8.95275 0 213 41 43.7495 
100.094 -33.185 8.96218 0 214 40 46.655 
100.084 -32.8559 8.94169 0 213 41 43.2038 
100.04 -32.599 8.92417 0 210 44 45.6919 
100.109 -32.2367 8.96102 0 214 40 40.5707 
100.082 -32.0335 8.96077 0 214 40 45.5018 
100.102 -31.6285 9.03604 0 221 33 41.0991 
100.119 -31.3997 9.02935 0 220 34 53.6188 
100.102 -31.1344 9.02437 0 220 34 51.5124 
100.081 -30.7316 9.02094 0 219 35 41.8548 
100.132 -30.4101 9.02034 0 219 35 45.6938 
100.055 -30.1235 9.02051 0 219 35 47.9002 
99.9878 -30.0102 9.01817 0 219 35 40.1758 
100.014 -29.6189 9.08125 0 225 29 51.0685 
99.9543 -35.7945 9.12727 0 229 25 45.1862 
100.116 -35.4759 9.14021 0 230 24 44.6633 
100.077 -35.3236 9.16861 0 233 21 48.4115 
100.127 -34.964 9.19859 0 235 19 48.3452 
100.12 -34.6938 9.20018 0 236 18 44.0135 
100.118 -34.4027 9.18719 0 234 20 44.4413 
100.104 -34.089 9.20793 0 237 17 43.7784 
100.094 -33.8054 9.19904 0 236 18 45.2177 
100.086 -33.4843 9.19462 0 235 19 43.5235 
100.105 -33.1908 9.19278 0 235 19 45.4468 
100.108 -32.8739 9.21236 0 237 17 45.346 
100.054 -32.6229 9.19035 0 234 20 50.7454 
100.106 -32.0096 9.22152 0 237 17 46.0034 
100.091 -31.7713 9.28719 0 243 11 57.1905 
100.049 -30.7207 9.28117 0 243 11 38.0367 
100.14 -30.4528 9.28613 0 243 11 47.4839 
100.041 -30.1271 9.3359 0 248 6 49.3564 
99.9905 -30.0188 9.35335 0 249 5 42.2535 
99.984 -35.8024 9.45916 4 255 0 48.0925 
100.116 -35.4837 9.43408 2 255 0 51.3604 
100.08 -35.3259 9.49099 7 255 0 50.922 
100.126 -34.9838 9.49069 7 255 0 47.106 
100.12 -34.7005 9.51009 8 255 0 44.9258 
100.116 -34.3988 9.49205 7 255 0 44.9409 
100.11 -34.089 9.51691 9 255 0 45.3427 
100.107 -33.7976 9.52433 10 255 0 46.0683 
100.103 -33.4908 9.52409 10 255 0 46.1382 
100.1 -33.2042 9.53988 11 255 0 46.7461 
100.096 -32.888 9.54675 11 255 0 48.6941 
100.062 -32.6584 9.48218 6 255 0 53.4482 
100.083 -32.0306 9.51007 8 255 0 49.0732 
100.13 -31.8392 9.54493 11 255 0 53.561 
100.05 -30.9859 9.42266 0 255 0 39.036 
100.061 -30.8076 9.54332 11 255 0 39.0375 
100.15 -30.449 9.61749 18 255 0 47.2939 
100.035 -30.1228 9.63164 19 255 0 49.87 
99.9861 -30.0246 9.63573 20 255 0 42.5383 
99.9544 -35.8077 9.80608 35 255 0 51.2681 
100.118 -35.4914 9.7528 30 255 0 49.8363 
100.081 -35.3462 9.79465 34 255 0 51.3656 
100.11 -35.0105 9.80156 35 255 0 50.0686 
100.115 -34.7188 9.79753 34 255 0 46.1535 
100.113 -34.4022 9.81472 35 255 0 46.6341 
100.106 -34.0985 9.81373 35 255 0 47.1662 
100.105 -33.7978 9.80729 35 255 0 47.58 
100.102 -33.5089 9.81646 36 255 0 47.0914 
100.091 -33.2001 9.80344 35 255 0 49.5533 
100.087 -32.8952 9.84007 38 255 0 48.9874 
100.068 -32.6663 9.89914 44 255 0 50.0448 
100.111 -32.0221 9.90407 44 255 0 53.1616 
100.109 -31.6991 9.79042 34 255 0 60.6739 
100.068 -31.0114 9.78305 33 255 0 40.036 
100.064 -30.7654 9.86237 40 255 0 40.0369 
100.15 -30.4307 9.93452 47 255 0 44.6024 
100.031 -30.1303 9.92449 46 255 0 50.8937 
99.9939 -30.0377 9.94489 47 255 0 43.8818 
99.9622 -35.8155 9.99342 52 255 0 54.3543 
100.109 -35.5125 10.057 58 255 0 50.4216 
100.085 -35.3372 10.0743 59 255 0 52.9179 
100.117 -34.9978 10.0867 60 255 0 49.6997 
100.124 -34.7152 10.0982 62 255 0 46.3151 
100.107 -34.4147 10.1008 62 255 0 48.9752 
100.098 -34.0981 10.0943 61 255 0 49.1471 
100.099 -33.7998 10.1001 62 255 0 48.144 
100.105 -33.5048 10.1433 65 255 0 49.6072 
100.099 -33.1928 10.1136 62 255 0 49.5971 
100.093 -32.8766 10.1346 65 255 0 49.606 
100.103 -32.6742 10.2246 73 255 0 54.3076 
100.108 -32.0304 10.1636 67 255 0 53.4526 
100.122 -31.8493 10.0999 62 255 0 59.061 
100.082 -31.0316 10.1443 65 255 0 41.036 
100.071 -30.7459 10.1807 68 255 0 40.1217 
100.152 -30.4345 10.2073 71 255 0 45.2103 
100.033 -30.1257 10.2041 71 255 0 51.7847 
99.9977 -30.0312 10.2366 74 255 0 42.5045 
99.9947 -35.8266 10.3083 80 255 0 51.8344 
100.116 -35.5191 10.3006 80 255 0 52.3522 
100.059 -35.3537 10.3271 82 255 0 53.3269 
100.076 -34.9953 10.3375 83 255 0 50.8821 
100.103 -34.7377 10.2957 79 255 0 46.8819 
100.098 -34.4034 10.34 83 255 0 49.3531 
100.108 -34.1092 10.3272 82 255 0 48.2759 
100.107 -33.8358 10.3183 81 255 0 51.9249 
100.114 -33.5224 10.3342 83 255 0 51.1781 
100.101 -33.2192 10.3835 87 255 0 52.8794 
100.085 -32.9029 10.3638 85 255 0 50.5068 
100.1 -32.7032 10.4335 91 255 0 51.4343 
100.209 -32.443 10.497 97 255 0 62.0595 
100.092 -32.0019 10.4512 93 255 0 52.0315 
100.097 -31.7545 10.5161 99 255 0 53.5579 
100.073 -31.4761 10.5541 102 255 0 51.2227 
100.089 -31.0896 10.5681 103 255 0 48.0565 
100.078 -30.8002 10.4343 91 255 0 41.5532 
100.14 -30.4558 10.4913 97 255 0 46.419 
100.04 -30.141 10.4886 96 255 0 52.746 
100.011 -30.012 10.4991 97 255 0 45.9527 
100.004 -29.7593 10.6273 109 255 0 48.0575 
99.9333 -35.8109 10.5791 104 255 0 49.5653 
100.045 -35.6615 10.5877 105 255 0 56.2134 
100.044 -35.3469 10.6223 109 255 0 54.9677 
100.054 -35.0059 10.5977 106 255 0 53.9121 
100.083 -34.7397 10.5998 106 255 0 53.5139 
100.072 -34.4433 10.5929 106 255 0 54.7196 
100.095 -34.1195 10.6109 107 255 0 54.5904 
100.053 -33.8452 10.6038 106 255 0 53.605 
100.087 -33.5582 10.6173 108 255 0 54.7664 
100.074 -33.2276 10.6511 111 255 0 53.4709 
100.103 -32.8998 10.6463 110 255 0 50.6235 
100.065 -32.6317 10.659 112 255 0 52.8483 
100.072 -32.3351 10.6819 114 255 0 48.7449 
100.052 -32.0658 10.716 117 255 0 50.8971 
100.073 -31.722 10.6701 112 255 0 50.9642 
100.06 -31.4669 10.7043 115 255 0 49.458 
100.107 -31.1504 10.6977 115 255 0 47.9624 
100.108 -30.8284 10.6989 115 255 0 50.6443 
100.114 -30.4882 10.7949 124 255 0 49.8857 
100.099 -30.1259 10.7732 122 255 0 51.3547 
100.079 -30.0402 10.7773 122 255 0 46.691 
100.048 -35.5649 10.9093 134 255 0 59.093 
100.006 -35.3599 10.9824 141 255 0 59.4932 
100.06 -34.9713 10.9034 133 255 0 57.8199 
100.079 -34.7416 10.9322 136 255 0 59.7607 
100.094 -34.4054 10.9102 134 255 0 55.7338 
100.096 -34.208 10.9267 136 255 0 44.053 
100.095 -33.8574 10.9236 136 255 0 56.8244 
100.096 -33.276 10.9325 136 255 0 54.1693 
99.9989 -32.9433 10.9253 136 255 0 50.5485 
100.008 -32.6142 10.9213 135 255 0 50.0662 
100.08 -32.3611 10.9819 141 255 0 51.7345 
100.078 -32.0784 11.0244 145 255 0 50.5602 
100.052 -31.7349 10.9795 140 255 0 60.5977 
100.131 -31.3701 11.0075 143 255 0 54.4633 
100.146 -31.0928 10.9644 139 255 0 59.6475 
100.114 -30.7556 11.0156 144 255 0 51.2742 
100.152 -30.4373 11.0813 150 255 0 47.652 
100.045 -30.1906 11.1047 152 255 0 54.2786 
100.014 -30.0362 11.067 148 255 0 48.6115 
100.007 -35.3749 11.2691 166 255 0 60.0692 
100.173 -34.7768 11.3123 170 255 0 45.8966 
100.145 -34.5045 11.3542 174 255 0 49.5179 
100.166 -32.0346 11.3732 176 255 0 51.0474 
100.136 -31.7889 11.4185 180 255 0 53.1273 
100.125 -31.4859 11.3599 174 255 0 47.034 
100.129 -31.1268 11.3454 173 255 0 45.3698 
100.139 -30.792 11.3702 175 255 0 42.9148 
100.218 -30.4664 11.3949 177 255 0 48.5497 
100.037 -30.1706 11.4003 178 255 0 55.0662 
100.026 -30.0471 11.3684 175 255 0 47.7395 
100.034 -35.3808 11.5423 191 255 0 56.5687 
100.162 -34.9153 11.5256 189 255 0 47.0527 
100.152 -34.7185 11.5552 192 255 0 48.2866 
100.158 -34.5137 11.6128 198 255 0 49.9411 
100.154 -32.0146 11.6505 201 255 0 57.48 
100.146 -31.7931 11.6654 202 255 0 57.5434 
100.14 -31.2002 11.6719 203 255 0 47.5352 
100.142 -30.8008 11.6644 202 255 0 44.3518 
100.211 -30.4815 11.675 203 255 0 49.8886 
100.036 -30.1659 11.6902 204 255 0 55.0859 
100.015 -30.074 11.7201 207 255 0 48.2591 
100.041 -35.3977 11.9306 226 255 0 54.553 
100.17 -34.7396 11.8943 222 255 0 50.7013 
100.154 -34.5186 11.9069 224 255 0 53.9822 
100.161 -32.0452 11.9497 228 255 0 58.1164 
100.114 -31.8805 11.8528 219 255 0 56 
100.143 -31.5163 12.0544 237 255 0 49.034 
100.14 -31.1442 11.9638 229 255 0 47.3698 
100.15 -30.8326 11.9817 231 255 0 44.6651 
100.206 -30.4976 11.9897 231 255 0 51.666 
100.032 -30.1817 12.0103 233 255 0 56.1972 
100.052 -30.0783 12.0182 234 255 0 50.8656 
100.038 -35.4016 12.2774 255 252 0 56.803 
100.132 -34.7746 12.1796 249 255 0 50.9896 
100.133 -34.5433 12.1484 246 255 0 52.5201 
100.146 -31.8927 12.1278 243 255 0 51.0312 
100.153 -30.9076 12.1954 250 255 0 48.37 
100.186 -30.4846 12.2188 252 255 0 50.5295 
100.066 -30.2105 12.2842 255 252 0 55.1748 
100.024 -30.0831 12.3689 255 244 0 53.0096 
99.997 -35.6047 12.5622 255 226 0 40.0435 
100.074 -35.0067 12.498 255 232 0 45.75 
100.071 -34.7808 12.5264 255 230 0 52.3365 
100.068 -34.4769 12.5278 255 229 0 51.3449 
100.003 -33.8723 12.595 255 223 0 56.699 
100.163 -33.4472 12.5939 255 224 0 62.0975 
100.035 -32.8249 12.5415 255 228 0 48.0535 
100.126 -32.5946 12.5327 255 229 0 54.8438 
100.113 -32.2818 12.6241 255 221 0 52.6855 
100.16 -32.0363 12.6638 255 217 0 56.3665 
100.116 -31.8333 12.656 255 218 0 52.0315 
100.216 -31.4796 12.649 255 219 0 54.8668 
100.159 -31.1558 12.6471 255 219 0 53.8873 
100.196 -30.8495 12.6698 255 216 0 53.8173 
100.128 -30.5519 12.6551 255 218 0 54.3154 
100.155 -30.1635 12.6381 255 219 0 54.7894 
100.129 -30.0926 12.6523 255 218 0 54.7531 
100.088 -29.7335 12.6055 255 222 0 40 
99.966 -35.865 12.8654 255 199 0 40.044 
100.066 -35.4034 12.7478 255 210 0 43.6092 
100.206 -34.9869 12.8505 255 201 0 41.547 
100.075 -34.7711 12.8041 255 204 0 49.1688 
100.077 -34.4435 12.8731 255 198 0 53.4037 
100.14 -34.1439 12.888 255 197 0 54.1684 
100.116 -33.8793 12.9082 255 195 0 53.1232 
100.086 -33.5999 12.8481 255 201 0 51.083 
100.119 -33.3258 12.834 255 202 0 53.8854 
100.055 -32.9558 12.876 255 198 0 56.1938 
100.049 -32.6868 12.8788 255 198 0 53.2666 
100.118 -32.4256 12.902 255 195 0 49.7513 
100.085 -32.062 12.8379 255 201 0 48.8648 
100.05 -31.7538 12.9359 255 192 0 48.8026 
100.13 -31.5324 12.9388 255 192 0 46.7625 
100.115 -31.1972 12.8257 255 203 0 54.6464 
100.197 -30.8771 12.8175 255 204 0 51.4077 
100.183 -30.5039 12.8944 255 196 0 52.2605 
100.141 -30.2928 12.8599 255 200 0 55.4402 
100.101 -30.0963 12.8274 255 202 0 55.1202 
100.062 -35.5958 13.079 255 180 0 47 
100.096 -35.4072 13.0806 255 180 0 50.4336 
100.136 -35.0229 13.1067 255 177 0 46.0465 
100.14 -34.7833 13.0938 255 178 0 49.5787 
100.123 -34.4747 13.0853 255 179 0 53.0115 
100.114 -34.2029 13.0923 255 179 0 53.3175 
100.123 -33.9084 13.1037 255 177 0 52.2718 
100.112 -33.6123 13.143 255 174 0 53.944 
100.123 -33.3123 13.0986 255 178 0 56.8214 
100.114 -33.0431 13.1444 255 174 0 56.1106 
100.081 -32.6882 13.1222 255 176 0 52.5306 
100.081 -32.3961 13.1412 255 174 0 50.3266 
100.081 -32.0999 13.1081 255 177 0 50.2129 
100.073 -31.7989 13.112 255 177 0 54.7901 
100.078 -31.4832 13.105 255 177 0 54.24 
100.088 -31.1702 13.1568 255 173 0 51.9171 
100.082 -30.8754 13.1897 255 170 0 49.6529 
100.186 -30.5112 13.1984 255 169 0 54.4296 
100.135 -30.3169 13.0937 255 178 0 56.5984 
100.053 -30.062 13.2112 255 168 0 58.6925 
100.122 -29.5006 13.2402 255 166 0 40 
100.096 -35.5537 13.362 255 154 0 49.5444 
100.097 -35.3888 13.3121 255 159 0 49.9471 
100.116 -35.0596 13.3962 255 151 0 52.6896 
100.145 -34.7785 13.3917 255 152 0 52.2744 
100.125 -34.4931 13.4022 255 151 0 53.5495 
100.134 -34.1712 13.4283 255 148 0 55.2613 
100.121 -33.8934 13.3896 255 152 0 53.6897 
100.125 -33.5726 13.402 255 151 0 56.0076 
100.135 -33.3413 13.432 255 148 0 55.8884 
100.115 -33.0145 13.4667 255 145 0 58.8218 
100.084 -32.6641 13.4614 255 145 0 53.3082 
100.078 -32.4058 13.4907 255 143 0 53.3259 
100.075 -32.0771 13.4932 255 142 0 52.6347 
100.071 -31.775 13.4305 255 148 0 54.8277 
100.072 -31.5029 13.4625 255 145 0 54.1143 
100.068 -31.2113 13.4739 255 145 0 55.7971 
100.069 -30.8729 13.4745 255 145 0 53.7519 
100.186 -30.5265 13.5069 255 142 0 56.1611 
100.061 -30.2479 13.4027 255 151 0 58.6856 
100.06 -30.0844 13.5396 255 139 0 54.0267 
99.9875 -35.8505 13.6556 255 128 0 55.026 
100.066 -35.6049 13.5885 255 134 0 48 
100.103 -35.3795 13.5984 255 133 0 53.2159 
100.124 -35.1117 13.5832 255 135 0 54.0381 
100.122 -34.781 13.6387 255 130 0 50.71 
100.119 -34.513 13.6357 255 130 0 53.3624 
100.127 -34.1808 13.6582 255 128 0 54.848 
100.116 -33.9101 13.7068 255 124 0 54.3188 
100.116 -33.5924 13.7393 255 121 0 53.4221 
100.133 -33.3236 13.714 255 123 0 57.3772 
100.102 -33.0313 13.6593 255 127 0 58.0136 
100.083 -32.7306 13.6435 255 129 0 55.6968 
100.068 -32.428 13.6255 255 131 0 54.035 
100.07 -32.0676 13.7021 255 124 0 55.4719 
100.082 -31.7737 13.73 255 121 0 52.8139 
100.078 -31.4889 13.7163 255 123 0 54.1903 
100.083 -31.2154 13.7259 255 121 0 53.0905 
100.081 -30.872 13.7439 255 120 0 51.4566 
100.182 -30.5263 13.7819 255 117 0 56.0354 
100.064 -30.3098 13.7626 255 118 0 59.7267 
100.048 -30.1396 13.653 255 128 0 56 
99.9914 -35.8571 14.0274 255 94 0 56.026 
99.9851 -35.8479 13.9131 255 105 0 55.031 
100.036 -35.4278 14.0986 255 88 0 58.0525 
100.113 -34.7547 13.8989 255 106 0 60 
100.11 -34.4532 13.938 255 103 0 54.3582 
100.115 -34.1688 13.9039 255 106 0 56.973 
100.135 -33.8994 13.9487 255 102 0 52.3547 
100.127 -33.6423 13.9789 255 99 0 49.7007 
100.143 -33.3014 14.0388 255 94 0 58.4445 
100.122 -33.0402 13.9996 255 97 0 59.1983 
100.09 -32.8076 14.0828 255 90 0 60 
100.098 -31.9901 14.0557 255 92 0 45.7093 
100.086 -31.8029 14.0195 255 95 0 56.5348 
100.082 -31.4909 14.0186 255 95 0 54.6468 
100.077 -31.2145 14.0692 255 91 0 55.8811 
100.083 -30.883 14.0778 255 90 0 55.2343 
100.17 -30.5816 14.0531 255 92 0 57.4794 
100.06 -30.2273 14.0421 255 93 0 61.371 
99.9958 -35.8715 14.3042 255 70 0 56.031 
100.126 -33.923 14.1913 255 80 0 51.5304 
100.145 -33.4795 14.1572 255 83 0 43.044 
100.147 -33.1368 14.1885 255 80 0 59.054 
100.081 -32.0007 14.2263 255 77 0 46.521 
100.083 -31.81 14.294 255 71 0 52.7906 
100.069 -31.5239 14.3209 255 68 0 54.4044 
100.119 -31.3071 14.2606 255 74 0 53.0128 
100.11 -30.9211 14.2173 255 77 0 55.0375 
100.195 -33.0586 14.5376 255 49 0 57.0347 
100.305 -36.1349 6.58488 0 0 254 26 
100.161 -35.6012 6.60129 0 2 252 25 
100.408 -34.1309 6.6306 0 5 249 13 
100.448 -33.8642 6.63437 0 5 249 13 
100.42 -33.2806 6.64528 0 6 248 16.0805 
100.446 -31.2924 6.68251 0 9 245 12.6928 
100.445 -31.1395 6.69248 0 10 244 9 
100.457 -30.7981 6.70058 0 11 243 5.66667 
100.448 -30.4345 6.70796 0 11 243 12.1394 
100.405 -30.1709 6.71534 0 12 242 11.808 
100.326 -29.8302 6.72099 0 13 241 13.3216 
100.36 -29.5334 6.72683 0 13 241 12.0742 
100.262 -36.1102 6.60913 0 2 252 13.9514 
100.286 -35.8711 6.61304 0 3 251 11.7738 
100.272 -35.5743 6.61863 0 3 251 13.5169 
100.307 -35.2787 6.66825 0 8 246 16.9763 
100.307 -34.9319 6.7754 0 17 237 19.4192 
100.361 -34.6564 6.71471 0 12 242 14.5738 
100.291 -34.3721 6.71729 0 12 242 16.7719 
100.286 -34.0066 6.72037 0 13 241 16.837 
100.326 -33.7096 6.71487 0 12 242 18.9105 
100.311 -33.4844 6.72307 0 13 241 21.3274 
100.287 -33.2015 6.72569 0 13 241 22.3761 
100.261 -32.8381 6.80796 0 20 234 24.6628 
100.239 -32.5069 6.82539 0 22 232 24.9263 
100.258 -32.2984 6.74163 0 14 240 20.7383 
100.255 -31.8343 6.76495 0 17 237 20.5823 
100.347 -31.6548 6.72896 0 14 240 14.1886 
100.291 -31.3439 6.76854 0 17 237 15.4139 
100.279 -31.0647 6.79148 0 19 235 11.5 
100.319 -30.7457 6.77926 0 18 236 12.7968 
100.268 -30.4453 6.85943 0 25 229 20.0667 
100.29 -30.149 6.76798 0 17 237 16.3709 
100.295 -29.899 6.74609 0 15 239 18.1039 
100.366 -29.6047 6.75595 0 16 238 26.0333 
100.269 -34.9352 7.09359 0 46 208 27.1202 
100.182 -34.6529 7.07093 0 44 210 27.5103 
100.172 -34.3929 7.10948 0 47 207 28.3433 
100.172 -34.0984 7.16135 0 53 201 28.2856 
100.168 -33.7208 7.21444 0 57 197 29.0998 
100.264 -33.2719 7.24043 0 59 195 31.0588 
100.178 -32.5312 7.26145 0 62 192 29.4133 
100.325 -32.0999 7.15734 0 52 202 31.055 
100.21 -31.9848 7.13109 0 50 204 29.9694 
100.188 -31.67 7.16487 0 53 201 29.7271 
100.191 -31.3479 7.19555 0 56 198 30.061 
100.341 -30.3983 7.19061 0 55 199 25.5915 
100.231 -30.2714 7.15335 0 52 202 28.4315 
100.294 -34.9414 7.44136 0 77 177 34.672 
100.173 -34.6877 7.42668 0 77 177 34.3985 
100.17 -34.3987 7.51368 0 84 170 36.6713 
100.17 -34.0739 7.4845 0 81 173 35.4587 
100.169 -33.8154 7.50431 0 83 171 35.3993 
100.301 -33.2661 7.50988 0 84 170 33.2322 
100.329 -32.1065 7.45337 0 79 175 32.3945 
100.234 -32.0419 7.45584 0 79 175 32.0553 
100.208 -30.7196 7.57486 0 89 165 37.2306 
100.346 -30.4085 7.50567 0 83 171 34.58 
100.284 -34.9496 7.6571 0 97 157 39.7625 
100.184 -34.6696 7.61146 0 93 161 33.3536 
100.178 -34.39 7.61691 0 93 161 35.8366 
100.166 -34.0624 7.58608 0 91 163 37.4655 
100.183 -33.2743 7.76907 0 107 147 40 
100.298 -32.0346 7.85118 0 115 139 34.5567 
100.357 -30.3948 7.7057 0 101 153 38.4109 
100.316 -34.9589 7.95441 0 124 130 47.7232 
100.175 -34.6923 7.94496 0 123 131 41.5882 
100.174 -34.4195 7.95015 0 123 131 43.1453 
100.294 -33.2744 8.03612 0 131 123 37.9485 
100.294 -32.0591 7.99665 0 127 127 35.3895 
100.213 -30.7099 7.98761 0 127 127 49.906 
100.354 -30.4129 8.0205 0 130 124 44.1773 
100.328 -34.9471 8.23709 0 149 105 49.9241 
100.181 -34.6834 8.24409 0 150 104 34.7528 
100.186 -34.4729 8.22261 0 148 106 34.0525 
100.302 -33.2797 8.29862 0 154 100 43.3191 
100.344 -30.4283 8.25801 0 151 103 42.8561 
100.283 -35.7844 8.62879 0 184 70 36.023 
100.244 -35.5551 8.60778 0 182 72 39.595 
100.348 -35.3269 8.56808 0 179 75 53.127 
100.287 -34.917 8.6264 0 184 70 49.2718 
100.287 -34.6605 8.60292 0 182 72 52.2527 
100.317 -34.4293 8.63992 0 185 69 52.8123 
100.286 -34.12 8.60993 0 183 71 50.9027 
100.293 -33.7434 8.64025 0 185 69 47.3613 
100.295 -33.4498 8.67377 0 188 66 43.9297 
100.291 -33.1917 8.67902 0 189 65 47.8625 
100.292 -32.5603 8.65501 0 186 68 45.4277 
100.282 -32.251 8.72148 0 192 62 42.842 
100.295 -31.9855 8.69043 0 189 65 44.3689 
100.281 -31.6802 8.70097 0 191 63 44.5166 
100.285 -31.38 8.71435 0 192 62 47.1268 
100.292 -31.0812 8.70811 0 192 62 47.6508 
100.273 -30.7657 8.72086 0 192 62 47.1861 
100.272 -30.5513 8.74199 0 195 59 49.4823 
100.333 -30.1086 8.68412 0 189 65 47.8757 
100.273 -30.0148 8.73531 0 194 60 39.0375 
100.306 -35.2664 8.90153 0 209 45 41.6683 
100.319 -34.9709 8.84557 0 204 50 53.1562 
100.364 -34.6113 8.94511 0 213 41 40.062 
100.354 -34.2818 8.95606 0 213 41 49.0775 
100.385 -34.1022 8.95766 0 214 40 46.4086 
100.341 -33.7761 8.93453 0 212 42 50.061 
100.39 -33.4983 8.95613 0 213 41 51.5597 
100.415 -33.1887 8.95255 0 213 41 51.7835 
100.341 -32.8851 8.87592 0 207 47 47.3532 
100.335 -32.5315 8.95454 0 213 41 51.7165 
100.352 -32.2616 8.98299 0 216 38 43.7858 
100.415 -32.0218 9.02161 0 219 35 45.5752 
100.484 -31.743 8.99163 0 217 37 63.0635 
100.341 -31.4705 9.01157 0 219 35 48.4302 
100.253 -31.0801 9.02388 0 219 35 41.0995 
100.453 -30.8012 8.96151 0 214 40 42.392 
100.344 -30.4087 9.00118 0 218 36 42.4547 
100.505 -30.3392 9.09778 0 226 28 39 
100.244 -35.4317 9.08609 0 225 29 48.0908 
100.328 -34.9899 9.1172 0 228 26 52.1227 
100.277 -34.2838 9.08 0 225 29 49.5918 
100.403 -33.3294 9.10862 0 228 26 37.035 
100.4 -32.1202 9.26445 0 241 13 51.7283 
100.383 -30.4118 9.27166 0 242 12 42.6464 
100.259 -30.3417 9.21143 0 237 17 35.102 
100.34 -34.9771 9.46666 5 255 0 53.7189 
100.354 -33.2949 9.46011 4 255 0 42.0983 
100.405 -32.1183 9.39623 0 253 1 55.563 
100.394 -30.4162 9.60737 17 255 0 43.034 
100.347 -34.97 9.83939 38 255 0 58.0555 
100.385 -32.126 9.90974 44 255 0 45.806 
100.412 -30.4193 9.92028 45 255 0 43.6242 
100.258 -30.3526 9.94435 47 255 0 36.102 
100.36 -34.9703 10.0622 58 255 0 54.9953 
100.294 -33.3011 10.0922 61 255 0 46.098 
100.356 -32.1295 10.1171 63 255 0 45.0555 
100.416 -30.4239 10.1999 71 255 0 44.7148 
100.239 -35.8845 10.4822 96 255 0 60.5902 
100.408 -34.9691 10.239 74 255 0 52.5543 
100.285 -34.2607 10.5055 98 255 0 40.0525 
100.296 -33.7976 10.5303 100 255 0 44.0535 
100.378 -33.3058 10.2918 79 255 0 45.0985 
100.305 -32.9474 10.5568 103 255 0 44.054 
100.49 -32.4839 10.5168 99 255 0 60.059 
100.412 -32.4459 10.5211 99 255 0 55.5576 
100.418 -32.1268 10.3102 80 255 0 49.0565 
100.268 -31.7656 10.5853 105 255 0 57.559 
100.395 -30.4324 10.4639 94 255 0 45.3871 
100.433 -30.1502 10.6017 106 255 0 51.2854 
100.365 -35.8316 10.5321 100 255 0 41.0358 
100.266 -35.7176 10.5628 103 255 0 57.0925 
100.306 -35.3682 10.5779 104 255 0 56.3405 
100.31 -35.0503 10.5618 103 255 0 54.0817 
100.26 -34.7528 10.5738 104 255 0 53.08 
100.291 -34.4428 10.5883 105 255 0 54.0955 
100.332 -34.0249 10.5652 103 255 0 60.5565 
100.279 -33.8009 10.5755 104 255 0 55.4152 
100.271 -33.5237 10.5826 105 255 0 58.4037 
100.313 -33.1437 10.5691 103 255 0 63.0585 
100.365 -32.9525 10.5812 105 255 0 49.717 
100.289 -32.586 10.6312 109 255 0 49.0985 
100.304 -32.3412 10.6662 112 255 0 48.099 
100.298 -32.0431 10.5872 105 255 0 53.0573 
100.317 -31.7378 10.72 117 255 0 49.0301 
100.301 -31.1896 10.673 113 255 0 50.0687 
100.318 -30.8347 10.7155 117 255 0 47.529 
100.345 -30.5073 10.729 118 255 0 51.3438 
100.357 -30.1376 10.6845 114 255 0 47.5137 
100.366 -30.0612 10.7417 119 255 0 45.3525 
100.251 -35.1524 10.9137 135 255 0 55.095 
100.36 -34.7138 10.9756 140 255 0 51.738 
100.455 -34.421 10.9329 136 255 0 49.0569 
100.257 -34.161 10.9518 138 255 0 52.039 
100.474 -33.9689 10.9217 136 255 0 55.055 
100.472 -33.2358 10.922 136 255 0 54.0555 
100.255 -32.5111 10.9594 139 255 0 59.097 
100.418 -32.3825 11.0357 145 255 0 52.5605 
100.345 -32.1222 10.9817 141 255 0 54.0985 
100.418 -31.7495 11.0457 146 255 0 49.0478 
100.439 -31.4665 10.9931 142 255 0 53.0993 
100.369 -31.1498 11.0257 145 255 0 44.037 
100.331 -30.845 10.9603 139 255 0 54.5788 
100.439 -30.4355 11.1064 152 255 0 47.5941 
100.416 -30.3797 11.0822 150 255 0 47.0076 
100.36 -34.8741 11.2271 163 255 0 48.053 
100.383 -32.1458 11.234 163 255 0 47.0545 
100.449 -30.4523 11.3803 177 255 0 48.1648 
100.468 -34.932 11.5388 191 255 0 52.3867 
100.248 -34.8187 11.7147 207 255 0 45.0525 
100.351 -32.142 11.4832 186 255 0 52.0555 
100.462 -30.4609 11.6805 204 255 0 49.1278 
100.283 -34.9165 11.9707 230 255 0 43 
100.387 -34.8697 11.9041 224 255 0 49.2764 
100.412 -32.1439 11.9152 225 255 0 59.0565 
100.479 -30.4676 12.0066 233 255 0 50.7448 
100.507 -35.0009 12.0562 237 255 0 39.0515 
100.539 -34.908 12.1606 246 255 0 52.053 
100.469 -30.4789 12.2154 252 255 0 51.1895 
100.347 -35.3932 12.5088 255 231 0 58.053 
100.263 -34.9515 12.4564 255 236 0 45 
100.284 -34.6976 12.4835 255 234 0 48.5265 
100.266 -34.4339 12.5177 255 231 0 51.053 
100.298 -33.979 12.5693 255 225 0 59.0975 
100.334 -31.7611 12.6536 255 218 0 51.0195 
100.318 -31.1964 12.6791 255 216 0 62.037 
100.325 -30.9052 12.6653 255 217 0 62.5365 
100.313 -30.5806 12.6693 255 216 0 63.036 
100.469 -30.1471 12.6429 255 219 0 55.1055 
100.576 -30.1252 12.6873 255 215 0 55 
100.452 -35.332 12.7916 255 206 0 41.0435 
100.295 -35.0178 12.7584 255 209 0 40.044 
100.373 -34.5269 12.8475 255 201 0 57.7202 
100.477 -34.1526 12.8854 255 197 0 51.3972 
100.323 -33.8343 12.8706 255 198 0 58.054 
100.448 -33.5875 12.8873 255 197 0 52.0535 
100.417 -33.332 12.9059 255 195 0 54.3665 
100.445 -33.0691 12.8638 255 199 0 54.054 
100.438 -32.654 12.9334 255 193 0 54.0212 
100.341 -32.3691 12.6818 255 216 0 51.02 
100.388 -32.1436 12.7925 255 206 0 54.8793 
100.339 -31.8717 12.7035 255 213 0 54.0415 
100.348 -31.5484 12.8497 255 201 0 46.036 
100.394 -31.1307 12.8434 255 201 0 54.071 
100.575 -30.9584 12.9836 255 189 0 49.101 
100.487 -30.5298 12.9795 255 189 0 55.3038 
100.467 -30.3443 12.8585 255 200 0 54.0208 
100.33 -30.1007 12.7402 255 210 0 54 
100.418 -35.0275 12.9976 255 187 0 50.4007 
100.419 -34.0589 12.9428 255 192 0 55.0985 
100.547 -33.855 12.9886 255 188 0 54.0235 
100.355 -32.5071 12.9871 255 188 0 53.0295 
100.544 -32.1258 13.0072 255 186 0 55.0232 
100.346 -31.5564 13.0186 255 185 0 55.0215 
100.482 -30.4959 13.2115 255 168 0 55.9476 
100.556 -30.4319 13.0573 255 182 0 55.3482 
100.418 -33.3331 13.4002 255 151 0 53.5519 
100.339 -32.1685 13.3907 255 152 0 58.555 
100.495 -30.5051 13.482 255 144 0 56.8484 
100.473 -34.9857 13.5494 255 138 0 48.5522 
100.297 -34.5647 13.7079 255 124 0 43.064 
100.4 -34.2283 13.6649 255 127 0 56.5533 
100.42 -33.3313 13.7202 255 122 0 52.8688 
100.508 -31.4256 13.8633 255 109 0 63.056 
100.485 -30.5069 13.7786 255 117 0 58.0092 
100.385 -30.4122 13.6409 255 130 0 43.102 
100.445 -33.3444 13.9817 255 99 0 56.6142 
100.499 -30.5158 14.0171 255 95 0 58.4603 
100.46 -33.3537 14.2174 255 77 0 54.0363 
100.325 -33.0754 14.422 255 59 0 45.0435 
100.461 -33.0767 14.5149 255 51 0 53.0382 
100.543 -33.1617 6.64457 0 6 248 16.0772 
100.499 -31.9662 6.67825 0 9 245 13 
100.523 -31.647 6.68372 0 9 245 12 
100.549 -31.2466 6.688 0 10 244 9 
100.577 -31.0425 6.69491 0 11 243 9 
100.567 -30.7302 6.70036 0 11 243 8.51017 
100.628 -30.4596 6.70649 0 11 243 8.61008 
100.643 -30.1557 6.71254 0 12 242 7.58654 
100.634 -29.8417 6.72045 0 13 241 12.4253 
100.658 -29.5441 6.72493 0 13 241 10.6199 
100.57 -36.1324 6.61106 0 3 251 15.2444 
100.599 -35.8513 6.61432 0 3 251 10.4403 
100.595 -35.5864 6.61797 0 3 251 13.2927 
100.57 -35.2876 6.62365 0 4 250 13.297 
100.6 -34.9704 6.63782 0 5 249 10.572 
100.638 -34.679 6.65937 0 7 247 13.2464 
100.635 -34.3593 6.63531 0 5 249 12.5 
100.604 -34.0607 6.63535 0 5 249 12.537 
100.58 -33.8609 6.63716 0 5 249 13 
100.694 -33.1787 6.75014 0 15 239 22.554 
100.723 -32.8236 6.8673 0 26 228 27.3908 
100.652 -32.4975 6.85286 0 25 229 26.2567 
100.65 -32.2108 6.79589 0 20 234 24.3824 
100.607 -31.9048 6.70992 0 11 243 16.2744 
100.661 -31.7161 6.78132 0 18 236 21.5651 
100.668 -31.2833 6.81267 0 21 233 20.8162 
100.69 -31.0843 6.81507 0 21 233 16.333 
100.654 -30.7326 6.77884 0 18 236 13.1947 
100.682 -30.3841 6.90317 0 29 225 20.6136 
100.693 -30.0985 6.8068 0 20 234 21.7747 
100.679 -29.8604 6.76485 0 17 237 25.6655 
100.759 -29.5017 6.74377 0 14 240 22.7286 
100.553 -34.953 7.0806 0 45 209 24.9723 
100.701 -34.5693 6.99253 0 37 217 21.0805 
100.646 -32.4774 6.97454 0 35 219 29.099 
100.664 -32.0715 7.17098 0 53 201 31.055 
100.632 -30.3965 7.16453 0 53 201 24.6715 
100.591 -34.9436 7.42966 0 77 177 34.8378 
100.656 -32.0769 7.46949 0 80 174 32.055 
100.657 -30.4069 7.47632 0 80 174 34.3042 
100.59 -34.9476 7.66784 0 97 157 41.0334 
100.66 -30.3985 7.69969 0 100 154 37.9692 
100.581 -34.9542 7.98251 0 126 128 48.9318 
100.663 -32.0813 8.0671 0 133 121 35.055 
100.659 -30.4104 8.00788 0 128 126 43.899 
100.587 -34.9592 8.25039 0 151 103 53.002 
100.638 -30.4207 8.25261 0 151 103 47.9677 
100.615 -35.8123 8.60808 0 182 72 36.56 
100.626 -35.3112 8.54303 0 177 77 51.6423 
100.761 -34.4637 8.67885 0 189 65 47.579 
100.785 -34.0626 8.70422 0 191 63 55.3955 
100.781 -33.8652 8.69579 0 190 64 56.5635 
100.79 -33.55 8.70817 0 192 62 55.0635 
100.771 -33.202 8.68485 0 189 65 55.5658 
100.564 -32.95 8.58676 0 180 74 36.0995 
100.679 -32.5618 8.76264 0 196 58 61.7497 
100.729 -32.2575 8.71334 0 192 62 60.2009 
100.767 -31.9112 8.70713 0 191 63 55.5632 
100.762 -31.6837 8.71445 0 192 62 57.6517 
100.771 -31.4309 8.7195 0 192 62 59.4564 
100.73 -31.0563 8.7256 0 193 61 57.6537 
100.774 -30.7474 8.70953 0 192 62 53.5618 
100.73 -30.5158 8.73296 0 193 61 54.8961 
100.665 -30.1114 8.64362 0 186 68 50.2776 
100.754 -29.9668 8.71154 0 192 62 45.0655 
100.731 -35.4839 8.84386 0 204 50 42.0938 
100.649 -35.3313 8.87322 0 206 48 44.7962 
100.668 -35.0246 8.94202 0 213 41 49.8446 
100.75 -34.5644 8.97557 0 216 38 40.097 
100.673 -34.0718 8.96015 0 214 40 48.9098 
100.578 -33.772 8.95921 0 214 40 46.4474 
100.586 -33.5317 8.94227 0 213 41 47.2066 
100.622 -33.1707 8.94077 0 212 42 53.0524 
100.715 -32.9059 8.89619 0 208 46 46.3087 
100.664 -32.533 8.96138 0 214 40 49.3148 
100.675 -32.249 8.96202 0 214 40 47.0747 
100.737 -32.1321 9.00376 0 218 36 40.099 
100.676 -31.58 9.04468 0 222 32 38.5675 
100.695 -31.3954 8.96786 0 215 39 42.0778 
100.649 -31.0802 8.92337 0 210 44 44.6597 
100.664 -30.8663 8.81403 0 201 53 37.03 
100.68 -30.3844 9.01258 0 219 35 42.1239 
100.678 -30.3322 9.03576 0 221 33 41.7399 
100.643 -34.9836 9.12616 0 229 25 52.5638 
100.707 -32.1095 9.19807 0 235 19 49.8104 
100.681 -30.4096 9.28643 0 243 11 41.3089 
100.656 -34.9614 9.43267 2 255 0 52.2275 
100.72 -32.1143 9.56409 13 255 0 54.4984 
100.69 -30.4179 9.61726 18 255 0 41.8586 
100.625 -34.9615 9.74099 29 255 0 52.7348 
100.709 -32.1177 9.89139 43 255 0 58.204 
100.72 -30.418 9.91689 45 255 0 42.4574 
100.658 -34.9485 9.97479 50 255 0 45.8868 
100.747 -32.1177 10.1644 68 255 0 54.392 
100.727 -30.4277 10.1867 69 255 0 44.718 
100.646 -35.3124 10.483 96 255 0 57.5769 
100.623 -34.9615 10.233 74 255 0 52.5543 
100.739 -32.119 10.3037 80 255 0 59.81 
100.733 -30.4331 10.467 94 255 0 45.3237 
100.679 -30.1522 10.5934 106 255 0 56.4643 
100.658 -35.8754 10.5197 99 255 0 51.0947 
100.702 -35.4065 10.6819 114 255 0 58.2177 
100.746 -34.9785 10.6437 110 255 0 54.7612 
100.744 -34.7176 10.6497 111 255 0 55.5836 
100.75 -34.36 10.6486 111 255 0 54.2154 
100.767 -34.1581 10.6521 111 255 0 57.9241 
100.764 -33.7534 10.6732 113 255 0 57.8162 
100.776 -33.5994 10.6535 111 255 0 53.6607 
100.774 -33.2246 10.6443 110 255 0 56.1994 
100.764 -32.935 10.6397 110 255 0 54.6565 
100.757 -32.7309 10.6788 113 255 0 61.0583 
100.633 -32.3598 10.736 118 255 0 44.0325 
100.753 -32.0532 10.744 119 255 0 46.0433 
100.723 -31.7161 10.6995 115 255 0 52.4739 
100.74 -31.3841 10.6842 114 255 0 54.6099 
100.783 -31.151 10.7276 118 255 0 51.572 
100.739 -30.7856 10.743 119 255 0 51.6401 
100.721 -30.4334 10.8388 128 255 0 46.9473 
100.711 -30.2843 10.7839 123 255 0 46.6597 
100.532 -35.0356 10.9431 137 255 0 51.0965 
100.786 -34.8571 10.9586 139 255 0 48.0975 
100.712 -34.3357 10.9584 139 255 0 49.0975 
100.547 -34.0221 10.8957 133 255 0 52.0545 
100.654 -33.7514 10.8967 133 255 0 51.0545 
100.619 -32.5895 11.1106 152 255 0 47.024 
100.726 -32.3478 10.9527 138 255 0 43.6967 
100.775 -32.0866 11.0322 145 255 0 47.0256 
100.743 -31.7035 11.0384 146 255 0 45.019 
100.642 -31.4381 11.019 144 255 0 48.0612 
100.704 -31.1693 11.0413 146 255 0 45.0425 
100.637 -30.8335 10.9358 136 255 0 51.057 
100.735 -30.4296 11.0927 151 255 0 47.5933 
100.741 -30.3879 11.0293 145 255 0 47.25 
100.778 -34.9736 11.202 160 255 0 37.0515 
100.689 -34.8787 11.2079 161 255 0 46.0527 
100.647 -34.4646 11.3268 171 255 0 47.536 
100.746 -30.4548 11.3641 175 255 0 48.8416 
100.663 -34.9045 11.4372 181 255 0 62.0545 
100.566 -34.4546 11.4605 183 255 0 41.041 
100.751 -30.4638 11.6439 200 255 0 49.4693 
100.806 -34.8957 11.9404 227 255 0 49.0527 
100.77 -30.4749 11.9755 230 255 0 50.8685 
100.779 -30.4884 12.1958 250 255 0 51.1634 
100.804 -34.8326 12.5416 255 228 0 48.0525 
100.767 -34.5116 12.5825 255 225 0 53.3828 
100.74 -31.87 12.619 255 222 0 60.5563 
100.847 -31.5622 12.6823 255 216 0 60.0385 
100.893 -31.125 12.6123 255 222 0 43.0435 
100.872 -30.7616 12.701 255 214 0 60.0385 
100.719 -30.1512 12.6241 255 221 0 54.2323 
100.778 -30.1282 12.6692 255 216 0 54.2664 
100.745 -35.0069 12.8097 255 204 0 42.048 
100.693 -33.8444 12.7532 255 209 0 56.5752 
100.756 -33.5134 12.7237 255 212 0 57.7497 
100.647 -33.3291 12.8021 255 204 0 50.731 
100.773 -32.5584 12.7088 255 213 0 54.025 
100.793 -32.4888 12.7476 255 210 0 53.0295 
100.783 -32.1309 12.7272 255 211 0 53.5219 
100.756 -31.4986 12.8553 255 200 0 50.8484 
100.726 -31.2062 12.7555 255 209 0 54.4295 
100.806 -30.9613 12.7435 255 210 0 53.2811 
100.793 -30.4815 12.8751 255 198 0 54.2582 
100.836 -30.4296 12.8249 255 203 0 54.017 
100.665 -34.1043 13.0169 255 186 0 54.024 
100.773 -33.3365 13.1089 255 177 0 43.543 
100.697 -32.3859 13.0129 255 186 0 55.0245 
100.72 -32.1903 12.9908 255 188 0 54.0205 
100.696 -31.1926 13.072 255 180 0 55.6936 
100.775 -30.4963 13.1938 255 169 0 55.5957 
100.819 -30.4274 13.0419 255 183 0 56.5165 
100.755 -32.1631 13.5394 255 139 0 55.5545 
100.791 -30.5064 13.4819 255 144 0 56.6369 
100.86 -35.4266 13.6854 255 125 0 40.2947 
100.816 -34.9634 13.5609 255 136 0 45.052 
100.828 -32.7137 13.652 255 128 0 40.0455 
100.84 -32.3908 13.7798 255 117 0 43.066 
100.834 -31.8546 13.8436 255 111 0 60.5553 
100.825 -31.6075 13.8069 255 115 0 58.055 
100.852 -30.8185 13.902 255 106 0 56.0195 
100.775 -30.5164 13.7535 255 119 0 57.8146 
100.841 -35.4509 13.9331 255 103 0 50.7268 
100.849 -35.252 13.9995 255 97 0 63.097 
100.876 -34.7825 14.0107 255 96 0 50.2976 
100.871 -34.5548 13.9663 255 100 0 44.2962 
100.891 -34.2681 13.9573 255 101 0 55.9407 
100.891 -34.0003 14.0871 255 89 0 60.5472 
100.745 -33.3533 14.0771 255 90 0 53.0365 
100.822 -32.6613 13.9456 255 102 0 50.8064 
100.827 -32.4294 14.0096 255 96 0 48.5652 
100.824 -32.0942 14.0625 255 91 0 60.066 
100.83 -31.8808 14.1184 255 86 0 62.0553 
100.829 -31.5139 14.0245 255 95 0 58.9085 
100.861 -31.2633 14.1022 255 88 0 59.2908 
100.86 -30.9093 14.0815 255 90 0 59.7007 
100.759 -30.5227 14.0265 255 94 0 58.6905 
100.845 -35.4162 14.1168 255 87 0 61.5973 
100.888 -34.1762 14.2477 255 75 0 57.5588 
100.903 -33.9117 14.1533 255 83 0 54.053 
100.881 -33.5651 14.2395 255 76 0 62.054 
100.865 -33.4052 14.222 255 77 0 56.0438 
100.712 -33.0741 14.3902 255 62 0 45.0435 
100.78 -32.4752 14.3155 255 69 0 60.077 
100.866 -32.0138 14.3247 255 68 0 60.023 
100.838 -31.6629 14.27 255 73 0 60.0225 
100.834 -30.5619 14.2164 255 78 0 60 
100.655 -35.9422 14.4439 255 57 0 55.034 
100.686 -33.0672 14.5133 255 51 0 55.0365 
100.775 -33.1482 6.64194 0 5 249 16.0758 
100.84 -31.1291 6.69111 0 10 244 13 
100.852 -30.4241 6.70549 0 11 243 9 
100.941 -30.141 6.71185 0 12 242 7.74181 
100.922 -29.8319 6.71795 0 12 242 6.63209 
100.874 -29.5882 6.72372 0 13 241 9.03699 
100.899 -36.1164 6.61456 0 3 251 13.5868 
100.892 -35.8932 6.61583 0 3 251 10.7583 
100.871 -35.5605 6.64053 0 5 249 15.1117 
100.881 -35.282 6.67453 0 8 246 17.0447 
100.873 -34.9572 6.78132 0 18 236 17.2577 
100.872 -34.678 6.72697 0 13 241 16.9854 
100.942 -34.3575 6.7145 0 12 242 18.6559 
100.918 -34.0524 6.73767 0 14 240 18.1219 
100.897 -33.7368 6.73431 0 14 240 20.4089 
100.896 -33.423 6.72469 0 13 241 26.06 
100.828 -33.1633 6.73898 0 14 240 23.0635 
100.839 -32.833 6.81004 0 20 234 26.0602 
100.825 -32.5228 6.822 0 22 232 22.7443 
100.9 -32.2786 6.81504 0 21 233 28.0985 
100.982 -31.8991 6.72121 0 13 241 14.6957 
100.946 -31.6308 6.72801 0 14 240 14.5263 
100.937 -31.3122 6.74008 0 14 240 13.2308 
100.951 -31.0589 6.76923 0 17 237 12.8942 
100.921 -30.7956 6.76051 0 16 238 12.8953 
100.907 -30.4209 6.89145 0 28 226 17.7541 
100.937 -30.1677 6.73527 0 14 240 13.5079 
100.95 -29.8359 6.73694 0 14 240 18.9885 
100.98 -29.5102 6.73016 0 14 240 12.9988 
100.838 -35.2657 6.91317 0 30 224 29.097 
100.874 -34.9492 7.10231 0 47 207 26.215 
100.862 -32.3851 6.96654 0 35 219 29.0235 
100.974 -30.3919 7.16735 0 53 201 24.676 
100.875 -34.9503 7.4592 0 79 175 35.2941 
100.979 -30.4081 7.49892 0 83 171 34.9979 
100.897 -34.9497 7.67159 0 98 156 41.9244 
100.991 -30.3995 7.69154 0 100 154 37.8337 
100.882 -34.9493 7.95032 0 123 131 49.1313 
100.989 -30.4113 8.00953 0 129 125 44.6082 
100.885 -34.9557 8.24695 0 150 104 55.5036 
100.978 -30.4142 8.24842 0 150 104 46.0123 
100.927 -35.7856 8.61795 0 183 71 36.0238 
100.912 -35.3162 8.52567 0 175 79 51.9037 
100.905 -34.9018 8.67648 0 189 65 60.488 
100.922 -34.7114 8.66217 0 187 67 57.0386 
100.939 -34.3684 8.66252 0 187 67 51.6236 
100.947 -34.0581 8.67011 0 188 66 51.6408 
100.964 -33.7516 8.67949 0 189 65 53.0795 
100.93 -33.4995 8.67702 0 189 65 51.96 
100.977 -33.2156 8.6926 0 190 64 52.3517 
100.974 -32.8576 8.68743 0 189 65 49.4493 
100.879 -32.5631 8.69969 0 190 64 59.0847 
100.961 -32.2877 8.71135 0 192 62 59.0865 
100.878 -31.9617 8.71244 0 192 62 60.2073 
100.944 -31.7255 8.72945 0 193 61 55.1019 
100.901 -31.3848 8.71907 0 192 62 54.4977 
100.92 -31.0883 8.72063 0 192 62 52.8408 
100.938 -30.8971 8.72219 0 192 62 46.0588 
100.91 -30.4724 8.72396 0 192 62 53.6951 
100.985 -30.0974 8.63887 0 185 69 49.3129 
100.992 -35.292 8.92091 0 210 44 41.4037 
100.904 -34.9876 8.83073 0 202 52 53.7591 
100.8 -34.5981 8.90089 0 209 45 35.052 
100.914 -34.3239 8.94037 0 212 42 39.0758 
100.851 -34.202 8.94445 0 213 41 46.0685 
100.933 -33.7402 8.93455 0 212 42 44.5564 
101.012 -33.5014 8.94291 0 213 41 45.4623 
100.938 -33.1863 8.89428 0 208 46 51.5519 
100.988 -32.9183 8.87418 0 206 48 52.2716 
100.937 -32.5062 8.76509 0 196 58 61.069 
100.921 -32.2199 8.92099 0 210 44 50.4157 
101.018 -32.0535 8.84354 0 204 50 55.0774 
101.039 -31.4243 8.97796 0 216 38 44.0716 
100.956 -30.9253 8.87149 0 206 48 37.0205 
100.972 -30.4183 9.01393 0 219 35 41.9016 
101.031 -30.3451 9.07966 0 225 29 38.6072 
100.931 -34.9704 9.07206 0 224 30 55.858 
100.942 -32.1202 9.12373 0 228 26 46.559 
101.02 -30.4077 9.27542 0 243 11 40.9766 
101.058 -30.3421 9.12309 0 228 26 39 
101.01 -34.9484 9.41957 0 255 0 46.0543 
100.941 -32.1193 9.53606 11 255 0 51.8374 
101.011 -30.4171 9.60794 17 255 0 41.2201 
100.827 -34.9965 9.87777 41 255 0 40.0525 
100.929 -32.1202 9.83855 38 255 0 58.061 
101.015 -30.4204 9.91726 45 255 0 42.3754 
101.081 -34.929 9.94581 47 255 0 42.803 
100.964 -32.1221 10.1363 65 255 0 54.7253 
101.008 -30.4264 10.1879 69 255 0 43.4967 
100.935 -35.2906 10.4677 94 255 0 56.5543 
100.961 -34.9743 10.2808 78 255 0 46.0533 
100.912 -32.4303 10.4906 97 255 0 45.5547 
100.919 -32.1304 10.3101 80 255 0 61.0605 
101.031 -30.4366 10.4441 92 255 0 45.4622 
101.07 -30.1827 10.5573 103 255 0 56.4399 
100.956 -35.5152 10.6547 111 255 0 48.0965 
100.972 -35.4224 10.6037 106 255 0 54.0849 
100.908 -34.9474 10.6399 110 255 0 56.0859 
100.925 -34.74 10.6301 109 255 0 59.4564 
100.899 -34.446 10.6268 109 255 0 50.2792 
100.91 -34.0938 10.6373 109 255 0 53.4719 
100.942 -33.8496 10.6182 108 255 0 55.6557 
100.889 -33.5461 10.6423 110 255 0 54.3855 
100.914 -33.2542 10.6858 114 255 0 49.3783 
100.943 -32.949 10.6308 109 255 0 54.3898 
100.958 -32.6902 10.6285 109 255 0 55.3903 
100.927 -32.336 10.744 119 255 0 47.3737 
100.917 -32.0011 10.7232 118 255 0 48.2898 
100.915 -31.7814 10.6754 113 255 0 52.2486 
100.925 -31.4657 10.7491 120 255 0 50.8284 
100.903 -30.8584 10.7051 115 255 0 46.5492 
100.937 -30.522 10.8597 130 255 0 49.0922 
100.988 -30.1117 10.6545 111 255 0 48.5264 
101.041 -30.0767 10.682 114 255 0 43.03 
101.019 -34.0962 10.9942 142 255 0 45.0228 
100.892 -33.2276 10.9329 136 255 0 45.022 
101.002 -32.553 11.1066 152 255 0 47.024 
101.013 -32.3612 11.0115 143 255 0 45.0488 
101.004 -32.0916 11.0493 147 255 0 47.0252 
101.154 -31.6707 11.0467 147 255 0 46.0283 
101.02 -31.482 11.0896 151 255 0 47.0215 
100.937 -31.2565 11.0443 146 255 0 45.0267 
101.016 -30.4512 11.094 151 255 0 47.6062 
100.988 -34.8695 11.254 165 255 0 42.0522 
101.039 -30.4561 11.3557 174 255 0 48.7687 
100.979 -34.9174 11.5915 195 255 0 55.7203 
101.073 -34.8867 11.4437 182 255 0 60.0543 
101.025 -34.415 11.6296 199 255 0 40.043 
101.028 -30.4648 11.651 201 255 0 49.2372 
101.041 -34.8504 11.951 228 255 0 41.052 
100.928 -34.472 11.8271 216 255 0 41.042 
101.044 -30.4705 11.9857 231 255 0 50.6376 
100.905 -34.9241 12.2899 255 251 0 63.054 
101.083 -34.8903 12.1183 243 255 0 62.054 
101.014 -34.4946 12.0335 235 255 0 41.0425 
101.013 -30.4854 12.1966 250 255 0 51.3002 
101.041 -35.3727 12.438 255 237 0 51.0525 
100.927 -35.01 12.5955 255 223 0 60.0535 
100.974 -34.7213 12.582 255 225 0 47.5525 
100.986 -34.4013 12.5892 255 224 0 51.053 
100.947 -34.3157 12.5777 255 225 0 55.0535 
101.048 -32.4249 12.4194 255 239 0 49.054 
100.951 -31.6631 12.6028 255 222 0 63.057 
101.072 -30.1536 12.6399 255 219 0 55.9623 
101.068 -30.1222 12.6325 255 220 0 55 
101.077 -35.2839 12.8521 255 200 0 45.04 
101.121 -34.3691 12.8767 255 198 0 47.0525 
100.902 -34.2012 12.8656 255 199 0 51.053 
100.964 -33.8398 12.73 255 211 0 53.5755 
101.079 -33.2608 12.8781 255 198 0 49.0303 
100.976 -32.9189 12.8485 255 201 0 49.0535 
100.934 -32.5348 12.7086 255 213 0 51.02 
101.033 -32.4105 12.8484 255 201 0 50.4416 
101.17 -32.0036 12.9554 255 191 0 55.042 
100.989 -31.7541 12.9145 255 195 0 54.5215 
101.008 -31.4115 12.8093 255 204 0 51.9097 
101.027 -31.1461 12.7928 255 206 0 52.0456 
100.956 -30.9153 12.7418 255 210 0 55.024 
101.001 -30.5125 12.9207 255 194 0 54.5894 
100.968 -30.4332 12.9274 255 193 0 55.4471 
101.046 -34.0604 13.0117 255 186 0 54.024 
101.112 -33.9104 12.9631 255 190 0 54.0245 
100.915 -33.3058 13.0585 255 182 0 49.5317 
101.08 -32.428 13.0095 255 186 0 54.7738 
101.166 -32.1393 12.9957 255 187 0 54.0325 
101.102 -31.7098 13.0191 255 185 0 55.022 
100.999 -31.1265 13.0189 255 185 0 54.0308 
101.076 -30.4975 13.1806 255 171 0 55.5476 
101.056 -30.4287 13.1032 255 177 0 55 
100.965 -33.333 13.3469 255 156 0 42.044 
101.075 -30.5086 13.4521 255 146 0 56.2286 
100.882 -35.3164 13.6561 255 128 0 41.044 
100.884 -35.027 13.5483 255 138 0 52.0525 
100.949 -34.8407 13.714 255 123 0 49.3857 
100.911 -34.524 13.7468 255 120 0 49.8025 
101.083 -30.5209 13.6766 255 126 0 56.5922 
100.921 -35.0435 13.9381 255 103 0 45.385 
100.908 -34.7904 13.9258 255 103 0 51.2063 
100.909 -34.5028 13.9523 255 101 0 54.3862 
100.951 -34.2 14.0217 255 95 0 52.2979 
100.911 -33.9508 14.0663 255 91 0 54.053 
101.035 -31.2654 14.0621 255 91 0 59.624 
100.907 -34.2067 14.1534 255 83 0 52.0527 
101.134 -33.0728 14.3825 255 63 0 45.0435 
101.138 -32.4516 14.4329 255 59 0 60.0545 
101.027 -32.0295 14.2803 255 72 0 59.522 
101.088 -35.9351 14.415 255 60 0 52.0368 
101.19 -36.1075 6.61503 0 3 251 15.2869 
101.167 -35.8739 6.6172 0 3 251 9.56496 
101.168 -35.5751 6.62103 0 4 250 11.8586 
101.194 -35.2753 6.62494 0 4 250 12.5865 
101.129 -34.9327 6.72034 0 13 241 14.6499 
101.195 -34.6785 6.65675 0 7 247 12.1105 
101.179 -34.377 6.64919 0 6 248 13.3071 
101.229 -34.0614 6.65408 0 7 247 13.0098 
101.147 -33.7981 6.69794 0 11 243 16.7196 
101.081 -33.5149 6.71562 0 12 242 21.0905 
101.184 -33.1986 6.67406 0 8 246 16.8797 
101.308 -32.4348 6.90657 0 29 225 29.0325 
101.347 -32.3679 6.90288 0 29 225 29.033 
101.236 -31.9431 6.68356 0 9 245 13 
101.197 -31.6803 6.68674 0 10 244 12.1667 
101.19 -31.2184 6.69823 0 11 243 9 
101.225 -31.1057 6.69596 0 11 243 9 
101.256 -30.757 6.74774 0 15 239 13.3962 
101.26 -30.4529 6.79415 0 20 234 15.0225 
101.285 -30.1549 6.73887 0 14 240 15.1535 
101.254 -29.8539 6.73158 0 14 240 14.0778 
101.254 -29.5833 6.72882 0 14 240 12.5714 
101.205 -34.9456 7.09295 0 46 208 25.4405 
101.231 -32.0847 7.21177 0 57 197 31.0565 
101.25 -30.3946 7.14989 0 51 203 23.935 
101.198 -34.9393 7.43162 0 77 177 35.0119 
101.269 -30.4055 7.46817 0 80 174 34.3985 
101.202 -34.9416 7.61815 0 94 160 39.8801 
101.274 -30.404 7.71712 0 102 152 39.2433 
101.322 -30.3055 7.75511 0 106 148 32.102 
101.22 -34.9443 7.9615 0 124 130 49.0459 
101.237 -32.0896 7.97941 0 126 128 35.5565 
101.293 -30.413 8.01625 0 129 125 45.5675 
101.216 -34.9452 8.24673 0 150 104 55.2134 
101.305 -30.4107 8.24511 0 150 104 45.8524 
101.239 -35.7888 8.61625 0 183 71 36.0247 
101.233 -35.3049 8.53233 0 175 79 53.3914 
101.369 -34.8512 8.67322 0 188 66 39.0965 
101.229 -34.5454 8.63946 0 185 69 48.558 
101.369 -34.3565 8.69696 0 190 64 39.097 
101.357 -34.172 8.67134 0 188 66 37.7427 
101.368 -33.7297 8.69432 0 190 64 39.0975 
101.332 -33.4399 8.68612 0 189 65 36.3892 
101.327 -33.0959 8.6793 0 189 65 36.0345 
101.315 -32.9494 8.68191 0 189 65 41.5762 
101.331 -32.5675 8.66718 0 188 66 44.061 
101.395 -32.2373 8.67282 0 188 66 41.6998 
101.366 -32.1366 8.70074 0 191 63 37.0995 
101.394 -31.641 8.68063 0 189 65 45.5062 
101.389 -31.4198 8.70043 0 191 63 42.322 
101.39 -31.0797 8.66588 0 187 67 46.0714 
101.375 -30.7996 8.70791 0 191 63 40.7132 
